# .PCD v0.7 - Point Cloud Data file format
VERSION 0.7
FIELDS x y z intensity
SIZE 4 4 4 4
TYPE F F F F
COUNT 1 1 1 1
WIDTH 1877
HEIGHT 1
VIEWPOINT 0 0 0 1 0 0 0
POINTS 1877
DATA ascii
9.724 -6.2639999 3.0419998 48
9.8950005 -6.3569999 3.244 39
9.8660002 -6.3239999 3.4219999 40
9.9379997 -6.3590002 3.6170001 14
10.141 -6.4819999 3.8429999 37
9.974 -6.3720002 4 19
9.7299995 -6.1960001 3.0349998 28
10.405 -6.6069999 3.3049998 40
9.9130001 -6.2789998 3.4200001 35
9.4540005 -5.9770002 3.5250001 9
9.8310003 -6.2080002 3.7739999 42
9.9899998 -6.3039999 3.993 10
9.8330002 -6.1869998 3.0409999 2
10.323 -6.4749999 3.286 49
10.079 -6.3049998 3.4369998 28
9.8360004 -6.1409998 3.5829999 41
9.8900003 -6.1659999 3.776 11
10.075 -6.276 4 10
10.061 -6.2490001 3.0599999 11
9.8070002 -6.073 3.2090001 63
9.9860001 -6.1669998 3.4159999 10
9.8439999 -6.0650001 3.5749998 24
9.4840002 -5.835 3.6900001 47
9.9399996 -6.1090002 3.9629998 31
10.291 -6.3099999 3.0809999 35
10.044 -6.138 3.234 43
10.492 -6.3940001 3.4850001 12
10.076 -6.1259999 3.6069999 43
9.4729996 -5.75 3.6799998 53
9.7510004 -5.9109998 3.915 36
10.432 -6.3109999 3.0910001 56
10.015 -6.0370002 3.224 40
10.521 -6.3239999 3.4819999 39
10.02 -6.0079999 3.5900002 48
9.6140003 -5.7540002 3.6989999 38
9.8430004 -5.8829999 3.9250002 38
10.441 -6.2290001 3.086 22
10.401 -6.1830001 3.2690001 13
10.539 -6.2459998 3.4779999 35
10.248 -6.0580001 3.6209998 50
9.7930002 -5.777 3.7249999 18
9.7969999 -5.7709999 3.9070001 31
10.193 -5.994 3.053 10
10.211 -5.9819999 3.2389998 8
10.647 -6.217 3.4879999 27
11.152 -6.494 3.7649999 19
9.7670002 -5.6760001 3.7129998 38
9.7159996 -5.638 3.8829999 34
10.01 -5.8000002 3.027 68
10.038 -5.7930002 3.21 11
10.564 -6.0770001 3.4689999 10
10.143 -5.8189998 3.5910001 35
9.8170004 -5.619 3.7150002 44
9.7399998 -5.5650001 3.8800001 25
22.365 -12.764 4.4109998 53
10.081 -5.7309999 3.211 28
10.03 -5.6820002 3.385 67
10.011 -5.6550002 3.5619998 63
10.445 -5.8850002 3.8249998 35
9.9119997 -5.5749998 3.908 30
22.202999 -12.475 4.3839998 48
22.191 -12.418 4.7779999 43
10.378 -5.7859998 3.431 26
10.125 -5.6290002 3.576 25
9.7329998 -5.3969998 3.688 32
9.9060001 -5.4809999 3.9000001 52
22.452999 -12.414 4.4060001 48
23.247 -12.799 4.9060001 47
10.262 -5.6290002 3.4089999 41
10.271 -5.6160002 3.595 28
9.8719997 -5.3839998 3.707 8
9.993 -5.4380002 3.9120002 52
22.782 -12.39 4.4349999 14
10.372 -5.6160002 3.237 26
10.277 -5.5430002 3.4070001 38
10.502 -5.6459999 3.628 33
10.189 -5.4640002 3.76 8
9.9390001 -5.3179998 3.895 44
23.146999 -12.378 4.4699998 42
10.464 -5.572 3.2459998 32
10.164 -5.3899999 3.3870001 46
10.44 -5.5180001 3.6129999 32
22.922001 -12.08 6.0750003 45
10.027 -5.2719998 3.908 42
23.288 -12.24 4.4809999 37
10.46 -5.4720001 3.2420001 23
10.355 -5.3959999 3.4119999 6
10.388 -5.3940001 3.6009998 9
22.436001 -11.615 5.9760003 15
10.069 -5.1989999 3.9109998 37
22.85 -11.797 4.428 6
10.331 -5.3080001 3.223 1
22.809999 -11.673 5.223 49
10.269 -5.2360001 3.5780001 15
10.169 -5.1690001 3.743 17
10.408 -5.277 3.974 29
22.888 -11.602 4.4289999 49
22.455 -11.329 4.7719998 43
22.59 -11.349 5.1869998 44
10.343 -5.177 3.5869999 4
10.189 -5.0840001 3.743 14
10.833 -5.3909998 4.0539999 1
24.141001 -12.011 4.5650001 53
22.584 -11.183 4.7849998 42
22.615999 -11.149 5.1849999 42
10.373 -5.0949998 3.589 24
11.046 -5.4070001 3.8940001 9
10.958 -5.349 4.0739999 1
22.861 -11.16 4.4219999 9
22.764999 -11.059 4.8059998 23
22.787001 -11.021 5.2059999 42
23.223 -11.187 5.677 42
10.927 -5.2459998 3.8699999 54
23.542 -11.271 6.5640001 42
23.166 -11.092 4.4549999 46
23.058001 -10.985 4.842 44
22.907 -10.865 5.2210002 44
23.197001 -10.958 5.6679997 43
10.76 -5.0650001 3.8369999 29
10.632 -4.9889998 4.0029998 5
23.26 -10.917 4.4660001 3
23.208 -10.836 4.8590002 3
23.622999 -10.978 5.3210001 26
23.653 -10.948 5.7379999 44
23.313 -10.752 6.092 35
23.268999 -10.698 6.4960003 41
15.497 -7.125 3.6100001 8
15.516 -7.098 3.878 50
24.18 -11.009 5.401 46
23.671 -10.732 5.7379999 43
24.011 -10.845 6.2140002 44
24.487 -11.025 6.7309999 45
15.706 -7.073 3.6339998 57
15.496 -6.9400001 3.8759999 50
15.136 -6.7470002 4.0900002 12
24.110001 -10.702 5.8070002 9
24.167 -10.688 6.2379999 45
23.938999 -10.551 6.618 4
15.388 -6.783 3.5999999 20
14.599 -6.4000001 3.7620001 38
14.511 -6.3309999 3.9990001 5
15.254 -6.6259999 4.3699999 27
15.186 -6.5710001 4.6240001 4
24.318001 -10.485 6.6880002 17
15.007 -6.4710002 3.5599999 20
14.505 -6.2210002 3.7509999 54
24.1 -10.286 5.388 11
15.237 -6.474 4.3670001 58
23.875999 -10.103 6.1800003 47
24.239 -10.222 6.6690001 4
15.417 -6.5009999 3.6069999 65
14.823 -6.2150002 3.7919998 15
15.075 -6.2909999 4.0819998 15
14.894 -6.1859999 4.3109999 14
23.882 -9.8800001 6.1800003 36
24 -9.8909998 6.6199999 7
15.269 -6.2930002 3.5929999 16
15.139 -6.204 3.835 39
14.676 -5.9840002 4.0250001 32
14.949 -6.0669999 4.3200002 14
15.237 -6.1570001 4.6300001 40
23.995001 -9.6610003 6.6160002 7
15.173 -6.1090002 3.586 18
14.688 -5.8790002 3.7789998 58
14.837 -5.9089999 4.0489998 22
15.348 -6.0830002 4.3860002 44
15.258 -6.0219998 4.6329999 2
31.201 -12.267 8.0310001 29
15.306 -6.0170002 3.6040001 22
0 0 1.9 0
15.278 -5.9390001 4.1149998 49
15.34 -5.9349999 4.3849998 9
15.354 -5.915 4.651 31
15.127 -5.8049998 4.8709998 8
15.05 -5.7729998 3.579 14
15.381 -5.8649998 3.8730001 40
15.246 -5.783 4.112 84
15.496 -5.8470001 4.4120002 45
15.352 -5.7680001 4.651 42
15.24 -5.7010002 4.8930001 31
15.344 -5.7389998 3.615 53
15.489 -5.7589998 3.8899999 37
15.012 -5.552 4.0809999 56
15.923 -5.8579998 4.4829998 35
15.349 -5.6220002 4.651 16
15.367 -5.605 4.9179997 10
15.385 -5.6100001 3.6230001 32
14.972 -5.4260001 3.826 68
15.342 -5.5289998 4.131 56
15.977 -5.7290001 4.493 48
15.629 -5.5770001 4.7030001 52
15.753 -5.598 4.9949999 15
15.869 -5.6350002 3.6819999 6
14.884 -5.2529998 3.8179998 39
15.828 -5.5549998 4.2049999 37
15.036 -5.2490001 4.342 40
16.33 -5.6729999 4.8299999 46
31.427999 -10.872 8.0749998 17
16.084 -5.5599999 3.711 38
15.765 -5.4159999 3.9359999 11
15.813 -5.401 4.2049999 4
15.949 -5.4169998 4.493 16
38.534 -13.026 8.8169994 14
39.566002 -13.312 9.677 24
16.009001 -5.3829999 3.707 1
15.921 -5.3189998 3.96 37
16.049999 -5.3309999 4.243 16
16.004 -5.2859998 4.5050001 31
38.445 -12.634 8.8050003 7
39.490002 -12.917 9.665 13
15.692 -5.1269999 3.6760001 72
15.613 -5.0689998 3.9239998 10
16.094 -5.1929998 4.2529998 44
16.093 -5.165 4.5219998 42
37.153999 -11.862 8.5780001 11
0 0 1.9 0
15.799 -5.0149999 3.6929998 9
15.857 -5.0009999 3.96 16
16.058001 -5.033 4.2519999 16
16.257999 -5.0669999 4.5510001 17
19.632999 -6.086 5.4320002 0
19.708 -6.0799999 5.7789998 18
19.695 -6.0679998 4.1409998 24
19.712 -6.0320001 4.4660001 24
19.725 -5.9980001 4.7929997 5
37.598 -11.363 8.04 20
0 0 1.9 0
0 0 1.9 0
20.915001 -6.2480001 4.2870002 46
21.042999 -6.244 4.645 29
20.996 -6.1900001 4.9850001 29
20.66 -6.0549998 5.2779999 27
0 0 1.9 0
0 0 1.9 0
20.702 -5.9920001 4.2690001 28
20.992001 -6.0339999 4.6440001 50
20.936001 -5.9780002 4.9809999 12
0 0 1.9 0
0 0 1.9 0
45.710999 -12.83 10.914 9
21.402 -5.9959998 4.3569999 19
21.011 -5.8439999 4.6529999 28
21.152 -5.8439999 5.0180001 12
0 0 1.9 0
0 0 1.9 0
45.812 -12.436 10.94 42
21.336 -5.7789998 4.3559999 28
21.436001 -5.7639999 4.7150002 38
21.257999 -5.677 5.039 6
0 0 1.9 0
45.074001 -11.887 10.047 31
45.730999 -11.991 10.929999 69
33.039001 -8.6440001 5.7139997 35
46.916 -12.182 8.0760002 26
45.341999 -11.691 8.6069994 9
45.404999 -11.628 9.3629999 10
45.007 -11.456 10.042999 39
45.703999 -11.564 10.931999 44
21.163 -5.3410001 4.3499999 27
46.060001 -11.537 7.9770002 41
0 0 1.9 0
0 0 1.9 0
45.384998 -11.138 10.12 53
0 0 1.9 0
0 0 1.9 0
45.992001 -11.1 7.98 3
45.902 -10.995 8.7150002 1
25.237 -6.0019999 6.059 24
25.164 -5.9450002 6.4619999 5
25.121 -5.8969998 6.8720002 7
25.115999 -5.8769999 4.8239999 24
25.089001 -5.822 5.2249999 75
25.112 -5.7820001 5.6339998 21
25.131001 -5.7449999 6.0479999 10
25.207001 -5.723 6.4749999 6
25.202999 -5.684 6.8930001 5
55.665001 -12.513 8.3999996 19
0 0 1.9 0
0 0 1.9 0
25.233 -5.539 6.0700002 32
45.611 -9.9420004 10.188 62
25.25 -5.467 6.9060001 1
48.868 -10.539 7.6220002 16
0 0 1.9 0
64.320999 -13.645 11.499 35
25.254 -5.3150001 6.079 14
45.729 -9.5539999 10.217999 63
46.275002 -9.6029997 11.082 50
48.999001 -10.124 7.652 31
0 0 1.9 0
65.196999 -13.244 11.645 48
25.24 -5.086 6.0820003 6
45.876999 -9.1730003 10.252999 29
0 0 1.9 0
64.373001 -12.723 9.4759998 36
64.541 -12.636 10.525 45
25.128 -4.8779998 5.6620002 150
25.108 -4.8340001 6.066 255
25.149 -4.802 6.4830003 255
25.159 -4.7680001 6.9000001 255
64.568001 -12.175 9.5179996 38
64.425003 -12.035 10.526999 38
25.142 -4.6529999 5.6700001 255
25.153999 -4.6160002 6.079 255
25.164 -4.5799999 6.4910002 255
25.171 -4.546 6.9070001 255
56.264999 -10.103 8.5550003 24
65.137001 -11.583 10.639 51
25.153 -4.4310002 5.678 255
25.167 -4.395 6.086 255
25.174999 -4.3569999 6.4980001 255
25.18 -4.323 6.9120002 255
63.005001 -10.753 9.3689995 36
65.75 -11.105 10.738 28
25.172001 -4.21 5.6859999 255
25.183001 -4.1719999 6.0939999 255
25.187 -4.1350002 6.5040002 255
25.186001 -4.0999999 6.9170003 255
0 0 1.9 0
25.403 -4.0640001 5.3210001 1
25.191 -3.9890001 5.6939998 255
25.184999 -3.948 6.0999999 255
25.198 -3.9130001 6.5110002 255
25.202999 -3.8789999 6.9250002 255
65.096001 -9.9449997 9.6519995 48
25.264999 -3.8180001 5.3080001 8
25.201 -3.766 5.7010002 255
25.198999 -3.727 6.1069999 255
25.209 -3.6919999 6.5170002 255
25.211 -3.6559999 6.9300003 255
65.153 -9.3710003 9.6750002 15
25.343 -3.6029999 5.3239999 14
25.219 -3.546 5.7090001 255
25.198999 -3.5039999 6.1110001 255
25.224001 -3.47 6.5250001 255
25.218 -3.4349999 6.9349999 255
80.125999 -10.816 11.481999 21
25.341 -3.3789999 5.3299999 23
25.231001 -3.325 5.7160001 255
25.204 -3.2820001 6.1170001 255
25.233999 -3.2490001 6.5300002 255
25.226 -3.2130001 6.941 255
81.167999 -10.238 11.625 50
25.393 -3.1600001 5.342 27
25.252001 -3.1040001 5.724 255
25.209999 -3.0610001 6.1220002 255
25.233999 -3.027 6.5339999 255
25.233999 -2.9920001 6.9460001 255
81.564003 -9.5640001 11.688999 37
25.427 -2.941 5.3519998 29
25.271 -2.885 5.7319999 255
25.212 -2.839 6.1270003 255
25.243999 -2.8080001 6.54 255
25.245001 -2.7720001 6.9510002 255
81.699997 -8.8570004 11.724 41
25.462999 -2.721 5.3610001 29
25.285999 -2.664 5.7389998 255
25.228001 -2.6199999 6.1329999 255
25.246 -2.585 6.5440001 255
25.246 -2.5510001 6.9549999 255
92.031998 -9.1719999 12.983999 50
25.503 -2.503 5.3719997 21
25.306999 -2.444 5.7459998 255
25.233999 -2.4000001 6.138 255
25.254 -2.3659999 6.5490003 255
25.261999 -2.3310001 6.961 255
101.405 -9.2130003 14.131 34
25.518 -2.279 5.3779998 24
25.323999 -2.2249999 5.7519999 255
25.238001 -2.181 6.1430001 255
25.261 -2.148 6.553 255
25.271999 -2.1129999 6.9660001 255
0 0 1.9 0
25.493 -2.0550001 5.3790002 52
25.349001 -2.006 5.7599998 255
25.25 -1.961 6.1480002 255
25.271999 -1.927 6.559 255
25.280001 -1.893 6.9710002 255
0 0 1.9 0
25.540001 -1.834 5.3889999 150
25.362 -1.784 5.7659998 255
25.253 -1.7410001 6.152 255
25.281 -1.706 6.5640001 255
25.295 -1.673 6.9760003 255
92.323997 -5.9640002 13.082 44
25.610001 -1.6160001 5.402 151
25.382999 -1.563 5.7719998 255
25.275 -1.521 6.1589999 255
25.285 -1.488 6.5669999 255
25.299 -1.454 6.98 255
93.050003 -5.1999998 13.183 28
25.643 -1.3940001 5.4099998 152
25.417999 -1.346 5.7810001 255
25.285999 -1.301 6.164 255
25.296 -1.268 6.572 255
25.304001 -1.233 6.9840002 255
95.431999 -4.4959998 13.485 37
25.671 -1.173 5.4169998 155
25.445 -1.125 5.7880001 255
25.299999 -1.084 6.1690001 255
25.308001 -1.048 6.5770001 255
25.32 -1.015 6.9890003 255
95.185997 -3.6619999 13.467 51
25.705999 -0.95099998 5.4250002 157
25.49 -0.90700001 5.7979999 255
25.316 -0.86699998 6.1740003 255
25.273001 -0.829 6.573 222
25.332001 -0.79699999 6.994 150
95.416 -2.848 13.504999 25
0 0 1.9 0
0 0 1.9 0
0 0 1.9 0
0 0 1.9 0
0 0 1.9 0
0 0 1.9 0
0 0 1.9 0
0 0 1.9 0
0 0 1.9 0
0 0 1.9 0
0 0 1.9 0
0 0 1.9 0
0 0 1.9 0
0 0 1.9 0
0 0 1.9 0
0 0 1.9 0
0 0 1.9 0
0 0 1.9 0
0 0 1.9 0
0 0 1.9 0
0 0 1.9 0
0 0 1.9 0
0 0 1.9 0
0 0 1.9 0
0 0 1.9 0
0 0 1.9 0
0 0 1.9 0
0 0 1.9 0
0 0 1.9 0
0 0 1.9 0
0 0 1.9 0
0 0 1.9 0
0 0 1.9 0
0 0 1.9 0
0 0 1.9 0
0 0 1.9 0
0 0 1.9 0
0 0 1.9 0
0 0 1.9 0
0 0 1.9 0
0 0 1.9 0
0 0 1.9 0
0 0 1.9 0
0 0 1.9 0
0 0 1.9 0
0 0 1.9 0
0 0 1.9 0
0 0 1.9 0
0 0 1.9 0
0 0 1.9 0
0 0 1.9 0
0 0 1.9 0
0 0 1.9 0
0 0 1.9 0
0 0 1.9 0
0 0 1.9 0
0 0 1.9 0
0 0 1.9 0
0 0 1.9 0
0 0 1.9 0
0 0 1.9 0
0 0 1.9 0
0 0 1.9 0
0 0 1.9 0
0 0 1.9 0
0 0 1.9 0
0 0 1.9 0
0 0 1.9 0
0 0 1.9 0
0 0 1.9 0
0 0 1.9 0
0 0 1.9 0
0 0 1.9 0
0 0 1.9 0
0 0 1.9 0
0 0 1.9 0
0 0 1.9 0
0 0 1.9 0
0 0 1.9 0
0 0 1.9 0
0 0 1.9 0
0 0 1.9 0
0 0 1.9 0
0 0 1.9 0
0 0 1.9 0
0 0 1.9 0
0 0 1.9 0
0 0 1.9 0
0 0 1.9 0
0 0 1.9 0
0 0 1.9 0
0 0 1.9 0
0 0 1.9 0
0 0 1.9 0
0 0 1.9 0
108.651 11.49 15.221 44
0 0 1.9 0
0 0 1.9 0
0 0 1.9 0
0 0 1.9 0
0 0 1.9 0
94.748001 10.808 13.523 47
106.772 12.306 16.676001 36
0 0 1.9 0
0 0 1.9 0
0 0 1.9 0
0 0 1.9 0
94.299004 11.539 13.474999 47
107.059 13.219 16.726 44
0 0 1.9 0
0 0 1.9 0
0 0 1.9 0
0 0 1.9 0
93.739998 12.24 13.410999 57
96.150002 12.663 15.223 50
0 0 1.9 0
0 0 1.9 0
0 0 1.9 0
0 0 1.9 0
94.119003 13.063 13.464999 54
95.472 13.363 15.138 47
0 0 1.9 0
0 0 1.9 0
0 0 1.9 0
0 0 1.9 0
93.349998 13.733 13.382 41
94.724998 14.04 15.045 50
103.945 15.535 17.983 33
0 0 1.9 0
0 0 1.9 0
0 0 1.9 0
93.867996 14.579 13.453 42
95.200996 14.89 15.124 36
0 0 1.9 0
0 0 1.9 0
56.833 9.0930004 12.542999 6
0 0 1.9 0
94.292 15.405 13.516 51
96.404999 15.858 15.306 54
0 0 1.9 0
0 0 1.9 0
56.709 9.533 12.530999 37
0 0 1.9 0
94.978996 16.281 13.612 31
96.809998 16.698 15.375 47
0 0 1.9 0
0 0 1.9 0
56.613998 9.9729996 12.526999 30
57.308998 10.174 13.603 34
92.681999 16.635 13.346 27
0 0 1.9 0
0 0 1.9 0
56.832001 10.394 11.653 37
56.457001 10.4 12.511 38
54.361 10.091 13.014 37
0 0 1.9 0
99.452003 18.754 15.776999 45
0 0 1.9 0
56.803001 10.848 11.660999 18
57.224998 11.001 12.67 34
53.566002 10.375 12.868 36
54.269001 10.613 8.6189995 37
0 0 1.9 0
0 0 1.9 0
57.542999 11.445 11.802999 24
54.088001 10.83 12.094999 35
53.708 10.829 12.914 31
53.814999 10.953 8.5739994 39
55.981998 11.452 9.7360001 28
53.471001 10.996 10.245999 12
53.591999 11.088 11.139 35
52.985001 11.033 11.903999 32
53.014999 11.111 12.789 33
53.639999 11.341 8.5649996 36
52.823002 11.222 9.309 39
52.984001 11.316 10.186999 36
53.48 11.484 11.136 38
53.347 11.525 11.992 16
52.285999 11.371 12.66 33
52.603001 11.535 8.4499998 41
53.068001 11.689 9.3579998 38
53.147999 11.765 10.229 31
56.391998 12.552 11.655999 4
53.368999 11.952 12.014 27
52.43 11.816 12.71 32
52.694 11.966 8.474 54
51.905998 11.843 9.2089996 50
52.748001 12.092 10.181999 42
60.903 14.037 12.460999 31
52.869999 12.255 11.94 42
52.091 12.149 12.662 36
52.675999 12.376 8.4879999 8
51.908001 12.248 9.2270002 46
52.403999 12.423 10.148 25
52.389 12.483 11.004999 0
51.417 12.319 11.686 16
50.952 12.283 12.450999 44
52.074001 12.64 8.4300003 13
52.073002 12.692 9.2699995 39
52.265999 12.798 10.146 12
51.908001 12.774 10.943 33
51.882 12.836 11.799999 31
51.907001 12.917 12.672999 27
51.992001 13.02 8.4379997 52
54.923 13.81 9.6929998 32
51.618 13.038 10.066999 25
51.321999 13.028 10.863999 35
51.300999 13.092 11.712999 40
52.722 13.532 12.87 24
55.214001 14.254 8.8669996 9
51.321999 13.304 9.2060003 30
51.591 13.43 10.085 0
63.082001 16.503 12.948999 24
55.491001 14.589 12.542999 14
52.598 13.906 12.874 32
54.382999 14.457 8.7849998 20
51.181 13.656 9.2069998 38
55.341999 14.828 10.707 14
51.250999 13.792 10.903 7
51.991001 14.064 11.903 17
50.449001 13.718 12.455 30
52.717999 14.407 8.5979996 9
54.667 14.993 9.7309999 31
0 0 1.9 0
50.73 14.032 10.841 37
52.623001 14.627 12.054999 28
51.716 14.453 12.752 14
52.727001 14.799 8.625 17
64.455002 18.153 11.167 22
50.570999 14.301 10.002999 26
50.52 14.35 10.832 18
0 0 1.9 0
50.361 14.449 12.502 24
52.893002 15.235 8.6739998 30
62.757999 18.139 10.96 13
46.728001 13.555 9.415 22
51.945999 15.135 11.117 35
55.103001 16.129999 12.601999 29
49.879002 14.68 12.434999 21
47.134998 13.921 7.9619999 40
47.134998 13.968 8.7309999 33
46.652 13.879 9.4329996 11
49.293999 14.725 10.679999 6
54.902 16.478001 12.603 12
46.104 13.909 11.672999 15
47.131001 14.263 7.9890003 28
46.993 14.267 8.7419996 35
46.755001 14.248 9.4790001 27
46.383999 14.193 10.195 17
53.09 16.322001 12.289 12
46.438 14.348 11.778999 7
47.416 14.687 8.0559998 35
47.23 14.677 8.8079996 36
46.069 14.369 9.401 27
46.400002 14.533 10.231 25
48.375 15.219 11.403999 10
45.155998 14.28 11.544 31
0 0 1.9 0
46.987999 14.938 8.8059998 27
46.025002 14.685 9.4279995 33
46.230999 14.809 10.237 15
48.153999 15.494 11.401 13
45.043999 14.566 11.561 34
46.806 15.16 8.0419998 27
46.699001 15.169 8.7969999 30
46.233002 15.071 9.4989996 32
45.800999 14.989 10.197 23
49.776001 16.363001 11.763 22
46.585999 15.39 11.933 19
46.535999 15.39 8.0409994 29
46.091 15.29 8.7449999 15
45.688999 15.207 9.4469995 23
47.993999 16.038 10.636 20
49.946999 16.766001 11.842 22
47.015999 15.86 12.068999 10
46.701 15.761 8.1009998 35
45.216999 15.304 8.6529999 37
45.396 15.415 9.4379997 38
47.837002 16.309999 10.651999 8
49.501999 16.950001 11.802 23
42.799999 14.727 11.200999 27
46.688 16.065001 8.1370001 31
45.132 15.574 8.6789999 44
45.042 15.598 9.4200001 29
48.787998 16.958 10.872 16
49.34 17.226 11.816999 25
42.417999 14.881 11.160999 30
46.727001 16.384001 8.1829996 34
45.945999 16.156 8.8429995 30
44.862999 15.829 9.4309998 36
46.112 16.333 10.426 15
48.903999 17.398001 11.780999 26
42.393002 15.156 11.2 17
40.063999 14.305 7.323 14
45.890999 16.431 8.8759995 35
45.035999 16.177999 9.5059996 22
46.092999 16.621 10.469 36
45.777 16.577999 11.195999 12
42.088001 15.317 11.181 10
40.264999 14.625 7.388 22
43.609001 15.885 8.573 39
45.063 16.469999 9.5550003 23
43.959999 16.127001 10.118 25
43.676998 16.093 10.818 4
41.632999 15.414 11.127999 23
40.264999 14.874 7.428 20
43.110001 15.968 8.5409994 37
43.464001 16.153 9.3289995 21
43.900002 16.377001 10.153999 24
43.798 16.409 10.891999 9
41.675999 15.691 11.188 16
40.673 15.267 7.527 28
40.909 15.399 8.2439995 18
42.794998 16.159 9.2609997 23
44.57 16.893999 10.332 18
41.251999 15.702 10.419 31
41.848 16.007 11.275 14
40.688999 15.508 7.572 21
40.831001 15.605 8.2769995 21
42.674999 16.361 9.2880001 22
41.013 15.784 9.7069998 33
45.853001 17.722 11.422999 21
43.412998 16.861 11.681 10
40.729 15.754 7.6199999 23
40.848 15.841 8.3239994 25
40.834 15.889 9.0190001 33
45.026001 17.584999 10.523 28
45.459 17.830999 11.4 34
44.709999 17.621 12.030999 22
40.602001 15.925 7.6490002 22
40.668999 15.993 8.3439999 29
41.110001 16.221001 9.1160002 24
52.731998 20.884001 12.063 22
45.860001 18.242001 11.540999 28
39.307999 15.712 10.856999 6
40.439999 16.073999 7.671 33
43.810001 17.462999 8.8940001 26
40.891998 16.351999 9.125 21
45.411999 18.228001 10.71 26
45.348 18.280001 11.493 31
39.181 15.872 10.881 7
45.276001 18.226999 8.4159994 27
43.923 17.731001 8.9650002 7
40.806999 16.528 9.1630001 16
45.278 18.407 10.743999 27
40.186001 16.41 10.455 11
39.082001 16.035 10.912999 29
55.735001 22.712999 9.9869995 13
39.592999 16.177999 8.3179998 25
39.486 16.188999 8.9790001 34
39.319 16.18 9.6309996 40
39.243 16.219 10.306 37
45.863998 19.047001 12.540999 5
39.478001 16.271999 7.6760001 32
39.488998 16.32 8.3499994 31
39.695 16.459999 9.0669994 15
45.294998 18.854 10.865999 11
68.499001 28.634001 16.666 28
39.117001 16.434 11.030999 20
39.673 16.528999 7.7550001 9
40.146999 16.771999 8.5089998 40
40.195 16.846001 9.2089996 25
40.169998 16.902 9.9059992 40
40.153999 16.968 10.611 0
46.097 19.577999 12.726 14
57.362999 24.143 10.436 18
40.974998 17.294001 8.698 9
45.459 19.250999 10.226999 21
41.223 17.523001 10.171 20
40.110001 17.125 10.658 34
40.257 17.271999 11.410999 28
40.658001 17.277 8.0039997 25
40.653999 17.320999 8.6969995 23
40.727001 17.412001 9.415 11
40.703999 17.468 10.122999 19
45.756001 19.724001 11.954 9
40.176998 17.406 11.452 19
40.631001 17.419001 8.0509996 28
40.152 17.263 8.6669998 32
39.103001 16.867001 9.1659994 27
40.094002 17.364 10.056 21
45.653999 19.858999 11.997999 18
50.664001 22.15 14.02 13
40.407001 17.466999 8.0699997 33
40.181999 17.419001 8.7249994 33
39.168999 17.035999 9.2319994 28
39.994999 17.465 10.091 23
45.660999 20.028 12.065 17
50.333 22.190001 14.014 23
40.424999 17.608999 8.125 33
40.104 17.518999 8.7649994 33
39.014 17.101 9.257 41
39.923 17.568001 10.131 19
45.665001 20.186001 12.131 20
50.562 22.464001 14.143 7
40.368999 17.707001 8.1689997 32
40.264999 17.709999 8.8439999 31
38.953999 17.194 9.2979994 38
39.702 17.593 10.138 7
0 0 1.9 0
56.734001 25.386 15.719 27
40.250999 17.767 8.2019997 30
40.187 17.792 8.8850002 34
38.988998 17.32 9.3559999 32
45.618 20.347 11.431 9
56.299999 25.226 14.672 14
55.556 25.023001 15.513 17
40.388 17.929001 8.2749996 29
39.984001 17.802999 8.901 33
38.921001 17.389999 9.3949995 27
42.506001 19.069 10.839 9
56.126999 25.299 14.712 11
55.589001 25.187 15.601 17
40.047001 17.870001 8.2729998 27
40.136002 17.962 8.9799995 31
38.863998 17.455 9.4359999 29
42.467999 19.150999 10.888 21
42.841 19.410999 11.738 14
52.308998 23.823999 14.865999 14
39.768002 17.823999 8.2779999 32
40.153999 18.049999 9.0339994 29
38.778 17.493999 9.4700003 19
42.18 19.107 10.882999 24
42.918999 19.535 11.813999 26
56.278 25.753 15.929999 13
39.661999 17.843 8.3099995 32
40.258999 18.167999 9.1040001 26
38.749001 17.548 9.5139999 8
41.938999 19.073999 10.887 21
42.855999 19.582001 11.856 17
56.181 25.809999 15.981 13
39.643002 17.889999 8.3549995 23
40.393002 18.285999 9.177 25
40.278 18.299 9.8640003 24
41.957001 19.143 10.943 24
42.698002 19.576 11.875 27
54.791 25.254 15.705 6
39.619999 17.926001 8.3979998 13
40.285999 18.283001 9.2060003 27
39.811001 18.135 9.8199997 25
41.877998 19.156 10.978 17
42.549 19.559 11.894 31
48.77 22.539 14.25 13
44.549 20.193001 9.2579994 17
40.110001 18.239 9.2220001 30
39.744999 18.139 9.8540001 26
41.848 19.181999 11.023 16
42.466999 19.559999 11.927 32
48.782001 22.593 14.316 18
45.192001 20.509001 9.415 15
40.117001 18.264 9.2679996 28
39.819 18.195999 9.9169998 25
41.944 19.250999 11.092 17
42.334999 19.525 11.945 27
48.685001 22.579 14.349999 22
39.048 17.732 8.4359999 7
40.166 18.298 9.3210001 26
39.411999 18.023001 9.8769999 12
42.084 19.327 11.17 21
42.280998 19.514999 11.981 24
48.653 22.58 14.396999 28
39.063 17.738001 8.4779997 14
40.169998 18.299 9.3629999 25
40.269001 18.415001 10.092 24
42.172001 19.368 11.233999 20
42.307999 19.528999 12.033 23
48.661999 22.586 14.452 28
39.152 17.764999 8.5319996 16
39.514 17.989 9.2810001 25
40.455002 18.487 10.17 22
42.262001 19.399 11.297 22
42.501999 19.607 12.122999 26
48.700001 22.593 14.513 28
39.588001 17.938 8.6429996 24
38.943001 17.705 9.2109995 23
40.633999 18.544001 10.245 18
42.355 19.417 11.358 25
42.629002 19.639999 12.193999 27
48.549 22.496 14.521 26
39.861 18.027 8.7249994 32
39.237 17.802999 9.3009996 25
41.097 18.721001 10.377999 19
42.397999 19.399 11.405999 23
42.638 19.610001 12.236 25
48.026001 22.212 14.429999 23
39.922001 18.006001 8.7690001 32
39.063 17.677 9.302 26
41.566002 18.884001 10.509 19
42.374001 19.34 11.436 23
42.685001 19.58 12.285 22
48.227001 22.250999 14.523 22
39.980999 17.973 8.809 27
38.823002 17.513 9.2869997 26
41.640999 18.858 10.558 19
42.481998 19.327 11.493 29
42.757999 19.552 12.334 10
48.139 22.139999 14.537 24
39.977001 17.902 8.8369999 30
38.897999 17.479 9.3269997 31
41.807999 18.860001 10.62 16
42.441002 19.233999 11.513 30
52.389 23.865 14.719999 12
48.386002 22.169001 14.636 21
39.932999 17.802 8.8559999 34
38.973 17.433001 9.3660002 32
42.611 19.138 10.816 5
56.043999 25.285 14.631 13
55.602001 25.216999 15.542999 16
41.064999 18.731001 12.735 22
40.081001 17.777 8.9049997 30
38.973 17.344 9.3879995 34
42.334999 18.917 10.782 6
66.809998 29.992001 17.118 6
55.610001 25.091999 15.575999 15
41.085999 18.646999 12.766 8
40.464001 17.841999 8.993 29
39.018002 17.264999 9.4180002 30
42.580002 18.916 10.856999 9
56.417999 25.18 14.776 22
56.452 25.326 15.809999 28
41.084999 18.540001 12.783 25
40.013 17.528999 8.9320002 35
39.039001 17.163 9.441 32
41.140999 18.160999 10.57 5
45.647999 20.243 12.337 11
56.352001 25.122 15.809 27
41.215 18.48 12.834 33
40.119999 17.455999 8.967 32
39.133999 17.084999 9.474 18
41.179001 18.051001 10.592999 5
66.640999 29.347 17.16 19
50.131001 22.191999 14.29 21
39.918999 17.774 12.502 46
39.966999 17.256001 8.9530001 21
39.653999 17.179001 9.585 24
45.673 19.868 11.554999 24
45.355 19.823 12.297999 9
40.173 17.648001 11.839 12
41.209 18.209999 12.855 14
40.355999 17.278999 9.0339994 19
40.057999 17.212 9.6729994 29
45.743 19.735001 11.58 9
45.516998 19.73 12.344999 13
40.167999 17.500999 11.844999 31
38.702999 16.962 12.197 11
45.625999 19.364 9.974 22
41.337002 17.606001 9.9279995 21
61.077 26.115999 14.834 23
40.16 17.253 11.12 34
40.134998 17.334 11.842 7
40.202999 17.462999 12.599 24
45.425999 19.097 9.9429998 18
40.235001 16.974001 9.7179995 20
40.131001 17 10.401999 35
45.653999 19.427 12.384 14
40.243999 17.215 11.870999 22
40.610001 17.471001 12.705999 7
40.209999 16.732 9.0209999 41
40.219002 16.795 9.7189999 28
68.918999 28.896 16.504 22
45.534 19.181 12.358999 12
45.909 19.438 13.271 20
40.502998 17.249001 12.674999 32
39.462002 16.247 8.8889999 41
39.327999 16.247999 9.5439997 44
39.251999 16.281 10.214999 26
61.169998 25.489 15.941999 21
37.999001 15.916 11.306999 20
40.377998 17.01 12.637 30
39.658001 16.143 8.9209995 20
39.473 16.121 9.5669994 6
39.388 16.153 10.238 23
39.088001 16.103001 10.865999 39
38.175999 15.809 11.344 36
40.543999 16.885 12.672 41
40.891998 16.448 9.1359997 16
45.407001 18.326 10.714 30
45.042999 18.253 11.426 30
39.935001 16.256001 11.052 27
39.337002 16.096001 11.622999 34
38.111 15.682 12.014 17
41.111 16.33 9.1669998 30
45.123001 17.983999 10.646999 8
45.620998 18.257 11.537 43
44.733002 17.982 12.139 33
38.803001 15.678 11.476 22
39.417999 16.017 12.346999 23
41.237999 16.164 9.177 27
44.926998 17.67 10.596 24
45.576 17.995001 11.514 40
44.750999 17.749001 12.125999 33
38.320999 15.276 11.342 8
38.195 15.312 12.004999 6
40.876999 15.803 9.0999994 43
41.028999 15.917 9.8269997 10
45.737999 17.812 11.530999 33
43.490002 17.013 11.82 6
39.563 15.554 11.629999 19
38.251999 15.124 12.000999 17
43.021999 16.395 9.4630003 34
41.115002 15.721 9.8280001 30
43.588001 16.732 11.059 9
45.424999 17.514 12.242 30
39.647999 15.363 11.629999 30
38.439999 14.977 12.028999 32
43.513 16.334 9.5310001 31
43.792 16.493 10.323999 18
41.361 15.638 10.570999 41
41.995998 15.948 11.438 13
46.314999 17.674999 13.24 28
38.603001 14.812 12.047999 35
43.395 16.035999 9.4899998 32
43.895 16.274 10.323 29
42.175999 15.695 10.717 13
41.619999 15.557 11.327 42
42.07 15.802 12.174 14
38.534 14.553 12.004999 23
44.521999 16.184999 9.6639996 37
43.948002 16.031 10.306999 18
45.823002 16.774 11.450999 21
41.662998 15.319 11.309999 31
41.664001 15.393 12.047999 44
38.686001 14.368 12.014 7
44.784 16.007999 9.684 38
46.021 16.500999 10.677 36
60.008999 21.6 14.372999 9
41.886002 15.139 11.330999 20
42.306999 15.366 12.171 28
42.171001 15.397 12.891999 6
45.07 15.83 9.7080002 36
49.75 17.527 11.354 25
42.347 14.974 10.672 31
42.439999 15.07 11.426 20
41.529999 14.817 11.952 17
41.945 15.042 12.797999 18
45.419998 15.665 9.7379999 23
49.841999 17.243999 11.339999 25
42.460999 14.742 10.662999 16
42.553001 14.836 11.417 34
41.714001 14.608 11.959 31
41.929001 14.761 12.757 14
45.292999 15.328 9.684 38
49.707001 16.875 11.276 25
49.394001 16.826 12.056999 28
42.799 14.639 11.436999 25
41.77 14.352 11.936999 28
41.148998 14.209 12.516999 4
45.987 15.259 9.7699995 35
48.964001 16.295 11.098 23
49.639999 16.579 12.066 27
43.470001 14.576 11.549 11
42.095001 14.178 11.978 48
42.250999 14.301 12.759999 17
46.139 15.001 9.7609997 34
48.258999 15.735 10.926 31
49.919998 16.333 12.082 23
44.922001 14.755 11.83 19
42.278 13.946 11.981 23
40.234001 13.337 12.200999 11
46.132 14.685 9.7229996 37
48.372002 15.444 10.908 32
50.058998 16.035999 12.065 28
45.130001 14.511 11.834 36
44.881001 14.492 12.558 10
41.742001 13.545 12.546 20
46.150002 14.376 9.6899996 30
48.477001 15.142 10.884999 28
50.109001 15.703 12.028999 15
45.187 14.214 11.804999 38
43.942001 13.881 12.29 15
41.151001 13.059 12.351 16
46.417 14.137 9.6949997 26
48.577999 14.834 10.861 18
50.217999 15.382 12.004 27
45.410999 13.96 11.808 26
45.971001 14.193 12.721999 40
41.106998 12.747 12.292999 15
46.57 13.853 9.6800003 13
62.004002 18.493999 13.282 43
50.280998 15.045 11.971 14
45.985001 13.809 11.887 29
44.125999 13.301 12.24 10
45.884998 13.892 13.45 34
46.721001 13.566 9.6630001 9
51.813999 15.083 11.363 31
53.596001 15.646 12.579 11
45.646 13.373 11.766 27
43.638 12.833 12.079 9
42.334999 12.505 12.507999 8
50.418999 14.278 10.233999 43
50.585999 14.359 11.089 27
50.335999 14.329 11.881 30
45.522999 13 11.691 12
50.404999 14.449 13.603 15
42.473999 12.226 12.493 0
53.326 14.713 10.664 40
50.688999 14.015 11.058 33
52.632 14.597 12.283 17
45.971001 12.787 11.74 7
46.037998 12.855 12.537 20
42.353001 11.875 12.414 11
0 0 1.9 0
51.087002 13.754 11.082 8
51.990002 14.033 12.101999 30
46.095001 12.48 11.717999 14
45.685001 12.412 12.403 37
45.832001 12.504 13.224 43
54.691002 14.289 10.785999 18
59.012001 15.448 12.448 14
51.119999 13.416 11.879 15
52.895 13.923 13.106999 40
45.644001 12.056 12.342999 19
44.132 11.699 12.752 37
51.451 13.06 10.21 39
51.300999 13.044 11.018 50
51.341 13.087 11.868999 42
52.639999 13.457 12.997 37
45.706001 11.722 12.304 44
44.425999 11.435 12.771999 37
52.571999 12.954 10.341 14
51.405998 12.689 10.985 41
51.881001 12.834 11.92 43
51.060001 12.667 12.608999 14
51.168999 12.732 13.488999 56
51.095001 12.761 14.342 50
52.226002 12.479 10.233999 35
52.491001 12.564 11.125 18
51.353001 12.316 11.763 31
50.973 12.258 12.533999 48
51.293999 12.37 13.460999 35
45.319 10.967 12.882 39
52.808998 12.221 10.276 43
62.143002 14.406 12.757999 47
52.837002 12.274 11.993999 55
51.820999 12.065 12.655999 41
51.938 12.129 13.547999 41
45.076 10.559 12.77 68
53.312 11.938 10.306999 27
61.278999 13.739 12.546 33
53.32 11.978 12.030999 25
52.418999 11.802 12.723 38
52.061001 11.751 13.516 42
45.316002 10.26 12.775 24
52.917999 11.448 10.193999 36
53.355 11.557 11.117 32
53.556 11.619 12.021 19
52.278999 11.365 12.639 35
52.055 11.341 13.457 40
45.183998 9.8739996 12.691 9
53.296001 11.122 10.202 22
53.445 11.164 11.080999 42
53.034 11.092 11.867 40
53.029999 11.112 12.736 46
52.719002 11.072 13.546 37
54.268002 11.428 14.797 35
0 0 1.9 0
0 0 1.9 0
54.032001 10.882 12.002 43
53.737999 10.838 12.823 39
52.962002 10.706 13.54 19
54.458 11.033 14.780999 34
0 0 1.9 0
57.486 11.118 11.662 33
57.212002 11.075 12.537 39
53.551998 10.381 12.729 48
53.410999 10.372 13.582 40
56.033001 10.906 15.089 21
0 0 1.9 0
56.750999 10.536 11.485 42
56.522999 10.5 12.353 43
54.287998 10.096 12.823999 43
54.014999 10.059 13.655999 41
0 0 1.9 0
0 0 1.9 0
56.806 10.1 11.441 9
56.844002 10.114 12.358999 17
57.435001 10.226 13.398 37
0 0 1.9 0
0 0 1.9 0
0 0 1.9 0
0 0 1.9 0
57.050999 9.7030001 12.342999 42
0 0 1.9 0
0 0 1.9 0
0 0 1.9 0
100.519 16.308001 17.012001 43
0 0 1.9 0
56.852001 9.2209997 12.254 9
0 0 1.9 0
0 0 1.9 0
0 0 1.9 0
100.093 15.466 16.864 37
0 0 1.9 0
0 0 1.9 0
0 0 1.9 0
0 0 1.9 0
0 0 1.9 0
0 0 1.9 0
0 0 1.9 0
0 0 1.9 0
0 0 1.9 0
0 0 1.9 0
0 0 1.9 0
100.684 13.986 16.789 51
0 0 1.9 0
0 0 1.9 0
0 0 1.9 0
0 0 1.9 0
0 0 1.9 0
100.799 13.218 16.728001 35
0 0 1.9 0
0 0 1.9 0
0 0 1.9 0
0 0 1.9 0
0 0 1.9 0
106.874 13.171 17.539 48
0 0 1.9 0
0 0 1.9 0
0 0 1.9 0
0 0 1.9 0
0 0 1.9 0
0 0 1.9 0
0 0 1.9 0
0 0 1.9 0
0 0 1.9 0
0 0 1.9 0
0 0 1.9 0
0 0 1.9 0
0 0 1.9 0
0 0 1.9 0
0 0 1.9 0
0 0 1.9 0
0 0 1.9 0
0 0 1.9 0
0 0 1.9 0
0 0 1.9 0
0 0 1.9 0
0 0 1.9 0
0 0 1.9 0
0 0 1.9 0
0 0 1.9 0
0 0 1.9 0
0 0 1.9 0
0 0 1.9 0
0 0 1.9 0
0 0 1.9 0
0 0 1.9 0
0 0 1.9 0
0 0 1.9 0
0 0 1.9 0
0 0 1.9 0
0 0 1.9 0
0 0 1.9 0
0 0 1.9 0
0 0 1.9 0
0 0 1.9 0
0 0 1.9 0
0 0 1.9 0
0 0 1.9 0
0 0 1.9 0
0 0 1.9 0
0 0 1.9 0
0 0 1.9 0
0 0 1.9 0
0 0 1.9 0
0 0 1.9 0
0 0 1.9 0
0 0 1.9 0
0 0 1.9 0
0 0 1.9 0
0 0 1.9 0
0 0 1.9 0
0 0 1.9 0
0 0 1.9 0
0 0 1.9 0
0 0 1.9 0
0 0 1.9 0
0 0 1.9 0
0 0 1.9 0
0 0 1.9 0
0 0 1.9 0
0 0 1.9 0
0 0 1.9 0
0 0 1.9 0
0 0 1.9 0
0 0 1.9 0
0 0 1.9 0
0 0 1.9 0
0 0 1.9 0
0 0 1.9 0
0 0 1.9 0
0 0 1.9 0
0 0 1.9 0
0 0 1.9 0
0 0 1.9 0
0 0 1.9 0
0 0 1.9 0
0 0 1.9 0
0 0 1.9 0
0 0 1.9 0
0 0 1.9 0
0 0 1.9 0
0 0 1.9 0
0 0 1.9 0
0 0 1.9 0
0 0 1.9 0
0 0 1.9 0
0 0 1.9 0
0 0 1.9 0
0 0 1.9 0
0 0 1.9 0
0 0 1.9 0
0 0 1.9 0
0 0 1.9 0
0 0 1.9 0
0 0 1.9 0
0 0 1.9 0
0 0 1.9 0
0 0 1.9 0
0 0 1.9 0
0 0 1.9 0
0 0 1.9 0
0 0 1.9 0
0 0 1.9 0
0 0 1.9 0
0 0 1.9 0
0 0 1.9 0
0 0 1.9 0
0 0 1.9 0
0 0 1.9 0
0 0 1.9 0
0 0 1.9 0
25.302999 -0.79699999 6.5910001 28
25.296 -0.82999998 6.9949999 150
25.291 -0.86199999 7.4040003 255
25.649 -0.92299998 5.4460001 189
25.447001 -0.94700003 5.8140001 255
25.268 -0.972 6.184 255
25.275 -1.0039999 6.586 255
25.301001 -1.038 6.9960003 255
25.295 -1.073 7.4050002 255
25.622 -1.128 5.4429998 195
25.416 -1.152 5.8099999 255
25.257 -1.178 6.1820002 255
25.27 -1.2130001 6.586 255
25.290001 -1.248 6.9960003 255
25.287001 -1.285 7.4050002 255
25.601999 -1.335 5.441 201
25.396 -1.359 5.8080001 255
25.247 -1.3839999 6.1830001 255
25.261 -1.42 6.586 255
25.282 -1.4579999 6.9960003 255
25.280001 -1.495 7.4070001 255
25.570999 -1.539 5.4390001 203
25.361 -1.562 5.8049998 255
25.232 -1.59 6.1830001 255
25.25 -1.626 6.5880003 255
25.271 -1.6670001 6.9980001 255
25.271999 -1.705 7.4089999 255
25.548 -1.745 5.4390001 200
25.336 -1.767 5.8049998 255
25.221001 -1.795 6.1849999 255
25.247 -1.835 6.592 255
25.27 -1.876 7.0030003 255
25.266001 -1.918 7.4130001 255
25.518 -1.95 5.4390001 204
25.312 -1.972 5.8059998 255
25.215 -2.003 6.1890001 255
25.243999 -2.046 6.5970001 255
25.257 -2.0869999 7.007 255
25.256001 -2.1289999 7.4180002 255
25.49 -2.155 5.441 194
25.289 -2.1760001 5.809 255
25.209 -2.2079999 6.1950002 255
25.231001 -2.25 6.6010003 255
25.257999 -2.2950001 7.0139999 255
25.247999 -2.336 7.4240003 255
25.448 -2.358 5.441 190
25.273001 -2.3800001 5.8130002 255
25.198 -2.4130001 6.2000003 255
25.233 -2.4590001 6.6100001 255
25.246 -2.5039999 7.02 255
25.24 -2.5480001 7.4320002 255
25.412001 -2.5610001 5.4439998 221
25.252001 -2.5840001 5.8179998 255
25.198 -2.619 6.2090001 255
25.221001 -2.665 6.6170001 255
25.232 -2.7119999 7.0279999 255
25.229 -2.7590001 7.4400001 255
25.361 -2.7590001 5.4450002 255
25.228001 -2.7880001 5.823 255
25.195999 -2.8280001 6.2179999 255
25.219 -2.875 6.6270003 255
25.221001 -2.9230001 7.0370002 255
25.225 -2.9719999 7.4510002 255
25.313999 -2.9619999 5.448 255
25.207001 -2.9909999 5.8299999 255
25.184 -3.0339999 6.2270002 255
25.207001 -3.0810001 6.6360002 255
25.212999 -3.131 7.0469999 255
25.208 -3.181 7.461 255
25.290001 -3.165 5.4549999 255
25.207001 -3.2 5.8410001 255
25.183001 -3.2420001 6.2379999 255
25.205 -3.2939999 6.6480002 255
25.207001 -3.3429999 7.059 255
25.204 -3.3929999 7.474 255
25.273001 -3.3710001 5.4639997 255
25.191 -3.405 5.8499999 255
25.172001 -3.4489999 6.25 255
25.191999 -3.5009999 6.6600003 255
25.201 -3.5539999 7.073 255
25.195 -3.6070001 7.4879999 255
25.239 -3.5739999 5.4720001 255
25.176001 -3.6110001 5.8610001 255
25.164 -3.6570001 6.2620001 255
25.187 -3.71 6.6740003 255
25.187 -3.763 7.086 255
25.195 -3.819 7.5040002 255
25.212999 -3.777 5.4809999 255
25.167 -3.816 5.8740001 255
25.157 -3.8640001 6.276 255
25.169001 -3.9170001 6.6859999 255
25.181999 -3.9719999 7.1010003 255
25.177 -4.0289998 7.5180001 255
25.201 -3.9790001 5.494 255
25.167 -4.0229998 5.8889999 255
25.142 -4.0710001 6.289 255
25.163 -4.1269999 6.7020001 255
25.171 -4.1830001 7.1170001 255
25.160999 -4.2399998 7.5339999 255
25.181 -4.1820002 5.506 255
25.149 -4.2259998 5.902 255
25.136 -4.276 6.3050003 255
25.156 -4.335 6.7179999 255
25.169001 -4.395 7.1360002 255
25.156 -4.4520001 7.553 255
25.157 -4.3839998 5.5190001 255
25.136999 -4.4330001 5.9170003 255
25.136 -4.4860001 6.323 255
25.148001 -4.5450001 6.7360001 255
25.157 -4.605 7.1540003 255
25.150999 -4.6659999 7.573 255
25.138 -4.5890002 5.533 255
25.120001 -4.6370001 5.9320002 255
25.122999 -4.6919999 6.3390002 255
25.139999 -4.7519999 6.7540002 255
25.149 -4.8130002 7.1729999 255
25.132 -4.8740001 7.5910001 151
25.115 -4.789 5.5469999 255
25.125999 -4.8460002 5.9520001 255
25.107 -4.8969998 6.3559999 150
25.087999 -4.954 6.7649999 2
25.201 -5.0370002 7.2060003 9
0 0 1.9 0
64.997002 -12.938 11.388 18
61.244999 -12.324 11.825 18
45.779999 -9.3149996 10.063999 30
46.181999 -9.5109997 10.896999 20
25.171 -5.2459998 7.223 6
0 0 1.9 0
64.855003 -13.444 11.417999 38
61.183998 -12.817 11.865999 26
45.716999 -9.6829996 10.092 50
45.471001 -9.7449999 10.799999 42
25.246 -5.4749999 7.263 25
45.544998 -10.003 12.346999 6
0 0 1.9 0
25.208 -5.4889998 6.027 14
45.584 -10.035 10.108999 47
45.249001 -10.074 10.797999 67
25.249001 -5.6869998 7.2880001 29
37.446999 -8.5410004 10.528 13
0 0 1.9 0
25.236 -5.7049999 6.0539999 35
25.131001 -5.7410002 6.4489999 7
25.101999 -5.8010001 6.8610001 35
25.096001 -5.868 7.283 17
37.054001 -8.7709999 10.478 20
25.096001 -5.823 5.6459999 35
25.089001 -5.881 6.052 15
25.099001 -5.948 6.467 5
25.176001 -6.0310001 6.901 2
25.202 -6.1090002 7.3320003 25
36.875 -9.0450001 10.479 27
0 0 1.9 0
25.172001 -6.1110001 6.0900002 26
45.402 -11.14 10.207999 51
45.541 -11.297 10.995 16
37.514999 -9.4130001 10.028 4
36.838001 -9.3540001 10.513 21
0 0 1.9 0
0 0 1.9 0
45.143002 -11.45 10.205999 32
45.708 -11.719 11.075999 29
37.507999 -9.7259998 10.068 3
36.863998 -9.6700001 10.561999 27
45.236 -11.616 8.776 31
45.219002 -11.725 9.5149994 29
45.210999 -11.842 10.264999 31
45.761002 -12.116 11.138 49
37.423 -10.019 10.092 26
36.884998 -9.993 10.612 16
0 0 1.9 0
0 0 1.9 0
45.41 -12.277 10.349999 0
45.676998 -12.479 11.171 36
36.933998 -10.205 10.028999 35
36.557999 -10.216 10.58 7
21.208 -5.7950001 5.165 1
0 0 1.9 0
0 0 1.9 0
0 0 1.9 0
36.897999 -10.504 10.065 26
36.497002 -10.511 10.612 4
0 0 1.9 0
0 0 1.9 0
0 0 1.9 0
0 0 1.9 0
36.924999 -10.824 10.117 20
0 0 1.9 0
20.882 -6.0489998 5.1570001 14
0 0 1.9 0
0 0 1.9 0
37.074001 -11.063 9.5550003 3
36.723999 -11.076 10.118 4
19.716 -6.013 6.6570001 9
20.818001 -6.2030001 5.1690001 6
37.352001 -11.231 8.3870001 4
0 0 1.9 0
19.688 -6.039 5.9890003 23
19.684999 -6.1030002 6.3299999 3
0 0 1.9 0
19.698 -6.0320001 5.0139999 16
19.681999 -6.0819998 5.3400002 21
37.140999 -11.592 9.0209999 13
0 0 1.9 0
0 0 1.9 0
0 0 1.9 0
16.219999 -5.099 4.4809999 15
37.080002 -11.765 8.4219999 21
39.651001 -12.7 9.5489998 5
0 0 1.9 0
0 0 1.9 0
0 0 1.9 0
16.091 -5.1900001 4.4780002 39
37.203999 -12.108 8.4860001 11
39.443001 -12.959 9.5559998 21
0 0 1.9 0
0 0 1.9 0
0 0 1.9 0
15.983 -5.2859998 4.4780002 18
38.528 -12.858 8.7649994 15
39.672001 -13.364 9.6470003 20
0 0 1.9 0
0 0 1.9 0
24.767 -8.6059999 8.0459995 7
15.929 -5.3979998 4.4860001 28
37.227001 -12.726 8.5749998 6
31.452 -10.854 8.0799999 7
0 0 1.9 0
0 0 1.9 0
24.658001 -8.776 8.0529995 14
14.841 -5.1500001 4.3260002 30
16.146 -5.6529999 4.8140001 19
31.458 -11.114 8.1189995 26
0 0 1.9 0
24.576 -8.8579998 7.6240001 6
24.527 -8.9359999 8.0550003 3
15.369 -5.4580002 4.4289999 18
15.615 -5.5939999 4.7360001 41
15.671 -5.6659999 5.0170002 17
31.296 -11.425 8.6739998 48
24.479 -9.0270004 7.6350002 29
23.426001 -8.7309999 7.8120003 22
15.804 -5.7399998 4.5180001 43
15.517 -5.684 4.7360001 41
15.217 -5.6259999 4.9450002 10
31.278 -11.677 8.7109995 6
24.125999 -9.0979996 7.5840001 9
23.528999 -8.9659996 7.8710003 20
15.68 -5.822 4.5149999 19
15.268 -5.717 4.7080002 38
15.138 -5.7189999 4.948 16
24.844999 -9.4759998 7.3410001 3
23.804001 -9.1709995 7.54 15
23.4 -9.1110001 7.8710003 11
15.321 -5.8109999 4.4720001 54
15.159 -5.7979999 4.7049999 47
15.012 -5.7940001 4.9400001 1
24.775999 -9.6540003 7.3580003 27
23.721001 -9.335 7.552 41
23.356001 -9.2880001 7.8930001 30
15.001 -5.809 4.434 45
15.132 -5.908 4.717 16
31.104 -12.255 8.2369995 22
24.636999 -9.7969999 7.3569999 32
23.136 -9.2910004 7.4430003 41
23.306999 -9.4589996 7.9120002 32
15.131 -5.9790001 4.473 17
15.044 -5.994 4.7179999 16
24.723 -9.9379997 6.9660001 17
24.184999 -9.8109999 7.2870002 28
23.193001 -9.5030003 7.487 31
23.848 -9.8719997 8.085 46
15.213 -6.131 4.5019999 47
15.158 -6.1589999 4.756 16
24.43 -10.013 6.9349999 25
23.625999 -9.7740002 7.1919999 35
23.650999 -9.8800001 7.6280003 47
24.295 -10.255 8.2340002 49
15.32 -6.2940001 4.5359998 12
23.747 -9.8369999 6.401 19
24.573999 -10.267 6.9920001 6
24.040001 -10.136 7.3140001 31
24.249001 -10.324 7.8039999 15
24.021 -10.332 8.1949997 17
24.347 -10.192 6.1150002 26
23.778999 -10.033 6.4320002 32
24.212999 -10.304 6.9440002 43
23.274 -9.9940004 7.1690001 41
24.242001 -10.511 7.8320003 34
22.577999 -9.8900003 7.8470001 10
24.287001 -10.353 6.1290002 30
24.377001 -10.474 6.572 11
23.945 -10.377 6.9159999 43
23.136 -10.117 7.164 40
22.629999 -9.9890003 7.4650002 28
22.487 -10.026 7.8510003 36
15.163 -6.5780001 4.5549998 15
24.398001 -10.668 6.6010003 5
23.66 -10.433 6.881 42
23.476 -10.445 7.2680001 44
22.601999 -10.152 7.4860001 2
22.922001 -10.398 7.9949999 44
24.334999 -10.74 6.1849999 21
24.607 -10.945 6.6659999 26
23.289 -10.445 6.8270001 41
23.24 -10.514 7.2400002 41
22.879 -10.45 7.5799999 47
22.860001 -10.545 8.007 35
23.829 -10.694 6.1170001 23
24.414 -11.04 6.652 36
23.273001 -10.61 6.8470001 31
23.208 -10.674 7.257 42
23.084 -10.715 7.6570001 43
22.796 -10.686 8.0159998 27
23.799999 -10.853 6.1329999 27
23.264999 -10.69 6.4500003 31
23.200001 -10.747 6.855 30
23.643999 -11.048 7.382 43
23.018999 -10.854 7.6659999 43
22.657 -10.788 8.0039997 10
23.245001 -10.765 6.0539999 32
10.607 -4.9489999 3.9829998 8
23.915001 -11.249 7.0300002 28
23.368 -11.086 7.3410001 34
22.879999 -10.953 7.6550002 38
29.305 -14.165 9.8269997 13
10.736 -5.0479999 3.8270001 22
10.557 -5 3.9829998 6
22.764999 -10.868 6.8039999 39
22.054001 -10.618 7.0560002 6
22.915001 -11.134 7.6859999 18
29.313999 -14.38 9.8610001 22
10.722 -5.1160002 3.8329999 22
23.556999 -11.322 6.5669999 35
22.155001 -10.732 6.691 27
22.063 -10.777 7.0780001 22
23.903999 -11.781 7.9580002 26
22.556999 -11.223 8.0479994 5
10.782 -5.2179999 3.8509998 30
23.152 -11.286 6.5040002 46
10.868 -5.3379998 4.2589998 0
10.358 -5.1300001 4.3389997 10
23.988001 -11.986 8.0009995 31
23.368999 -11.786 8.2909994 12
11.011 -5.401 3.9000001 10
10.908 -5.3889999 4.0770001 6
10.677 -5.3140001 4.2249999 40
10.328 -5.1830001 4.3400002 0
23.545 -11.919 7.908 50
23.179001 -11.843 8.2589998 17
10.686 -5.3119998 3.848 11
10.583 -5.2969999 4.0190001 25
10.618 -5.3540001 4.2199998 36
10.53 -5.3520002 4.3959999 0
21.372999 -10.957 7.3699999 29
23.271999 -12.041 8.3029995 23
10.103 -5.086 3.7480001 3
10.497 -5.3200002 4.0079999 31
10.346 -5.2820001 4.1669998 35
10.52 -5.4130001 4.401 10
21.243 -11.023 7.3510003 25
21.48 -11.248 7.8270001 10
10.124 -5.1570001 3.756 8
10.361 -5.3140001 3.9860001 22
10.204 -5.2709999 4.1420002 33
10.498 -5.4650002 4.402 37
21.056 -11.053 7.3169999 18
21.381001 -11.324 7.8130002 24
22.436001 -11.563 6.026 45
10.068 -5.223 3.9320002 31
10.247 -5.3530002 4.1560001 35
10.524 -5.5409999 4.414 10
10.458 -5.5510001 4.5960002 16
21.235001 -11.372 7.7860003 29
22.427 -11.689 6.0320001 12
10.038 -5.2649999 3.9309998 32
10.132 -5.3509998 4.1360002 31
10.405 -5.5370002 4.3899999 48
10.477 -5.6199999 4.6069999 19
21.093 -11.414 7.7579999 33
22.43 -11.816 6.04 32
10.058 -5.3309999 3.9390001 33
9.9870005 -5.329 4.1079998 51
10.013 -5.3829999 4.3010001 30
10.393 -5.632 4.5900002 10
20.962 -11.457 7.7309999 11
10.244 -5.4510002 3.7940001 21
9.9510002 -5.3270001 3.9200001 31
9.8479996 -5.3070002 4.0799999 33
10.092 -5.4780002 4.323 38
10.307 -5.6389999 4.5710001 22
20.892 -11.526 7.7189999 1
10.261 -5.513 3.799 17
9.9750004 -5.3909998 3.927 46
9.9639997 -5.4200001 4.1079998 36
10.248 -5.6139998 4.3629999 32
10.257 -5.6620002 4.5609999 16
28.608 -15.922 9.8769999 23
10.122 -5.487 3.7750001 34
9.9460001 -5.4229999 3.9229999 51
9.9580002 -5.4640002 4.1090002 28
10.143 -5.6040001 4.3400002 30
10.459 -5.822 4.6149998 6
28.320999 -15.893 9.8029995 22
10.151 -5.5510001 3.7820001 10
9.9379997 -5.4640002 3.9219999 48
9.8369999 -5.4419999 4.0830002 44
9.8210001 -5.4699998 4.263 25
10.243 -5.7459998 4.5599999 10
27.981001 -15.824 9.7119999 20
9.8500004 -5.4289999 3.7259998 38
9.8660002 -5.467 3.908 49
9.7880001 -5.4559999 4.072 41
9.8879995 -5.5479999 4.2800002 23
9.9420004 -5.618 4.4829998 29
28.389 -16.167999 9.8269997 21
9.8730001 -5.4819999 3.7290001 30
9.8400002 -5.493 3.902 36
9.7620001 -5.4809999 4.0669999 53
10.044 -5.6750002 4.3169999 27
9.934 -5.652 4.48 38
20.356001 -11.67 7.5830002 3
9.6639996 -5.4029999 3.6890001 41
9.9399996 -5.585 3.921 17
9.7419996 -5.5050001 4.0609999 49
9.901 -5.6300001 4.2820001 35
9.9700003 -5.7080002 4.4879999 34
20.295 -11.704 7.5640001 23
9.8710003 -5.5549998 3.7259998 58
9.9729996 -5.6389999 3.9260001 37
9.7690001 -5.553 4.0650001 34
9.9180002 -5.6719999 4.2839999 27
10.03 -5.7740002 4.5019999 34
20.348 -11.799 7.5739999 7
10.307 -5.8330002 3.8039999 34
10.291 -5.8520002 3.9879999 29
9.7139997 -5.552 4.0500002 30
9.9139996 -5.6999998 4.2800002 31
10.105 -5.8470001 4.5190001 33
10.16 -5.9200001 4.73 3
10.083 -5.737 3.76 40
9.7969999 -5.599 3.885 28
9.7600002 -5.6059999 4.0570002 30
9.9049997 -5.7210002 4.2750001 31
9.9549999 -5.7859998 4.4759998 25
10.103 -5.9120002 4.71 1
10.464 -5.9819999 3.826 30
9.6750002 -5.5539999 3.8559999 38
9.7650003 -5.6329999 4.0539999 31
9.8430004 -5.7090001 4.256 38
9.9519997 -5.8060002 4.4710002 26
20.110001 -11.81 7.4860001 26
10.01 -5.7449999 3.7379999 47
9.6540003 -5.5630002 3.8470001 36
9.7510004 -5.645 4.046 31
9.8330002 -5.723 4.2490001 38
9.9890003 -5.8470001 4.4759998 25
20.101 -11.842 7.4720001 7
10.008 -5.7649999 3.7319999 50
9.6859999 -5.6009998 3.849 33
9.8240004 -5.7049999 4.0570002 34
9.8380003 -5.7420001 4.244 36
9.9960003 -5.8670001 4.4720001 19
21.813 -12.882 7.9330001 1
9.8620005 -5.697 3.6999998 56
9.6300001 -5.5830002 3.832 40
9.809 -5.711 4.0479999 28
9.8529997 -5.763 4.2410002 37
10.001 -5.882 4.4660001 10
21.794001 -12.894 7.9130001 6
10.116 -5.8569999 3.74 45
9.6140003 -5.586 3.822 46
9.8459997 -5.743 4.0489998 23
9.8509998 -5.7729998 4.2340002 37
10.007 -5.8940001 4.46 19
21.870001 -12.955 7.9170003 8
10.126 -5.8740001 3.734 36
9.6339998 -5.6059999 3.819 37
9.8450003 -5.7509999 4.0419998 28
9.8629999 -5.7859998 4.2290001 35
10.013 -5.902 4.454 26
21.91 -12.988 7.9100003 9
10.091 -5.8600001 3.72 13
9.698 -5.6490002 3.8249998 40
9.842 -5.7529998 4.033 29
9.9280005 -5.8270001 4.237 34
9.9919996 -5.8920002 4.4400001 31
21.924999 -12.997 7.895 11
10.173 -5.9120002 3.727 13
9.7690001 -5.6919999 3.8299999 42
9.842 -5.7540002 4.0250001 27
9.9630003 -5.8470001 4.2360001 34
9.9980001 -5.8940001 4.4320002 34
21.941999 -13 7.8790002 14
10.119 -5.8800001 3.7090001 12
9.8549995 -5.7410002 3.839 43
9.8479996 -5.7550001 4.0170002 25
9.9899998 -5.8590002 4.2329998 34
10.003 -5.8909998 4.4239998 36
21.987 -13.012 7.868 21
9.9230003 -5.763 3.665 22
9.9239998 -5.777 3.8439999 42
9.8669996 -5.7589998 4.0120001 21
9.9619999 -5.835 4.2160001 39
10.01 -5.8870001 4.415 34
21.969 -12.979 7.8390002 26
9.9809999 -5.789 3.665 30
9.9420004 -5.7789998 3.8369999 40
9.9499998 -5.7989998 4.0190001 10
9.8839998 -5.7789998 4.1880002 45
10.045 -5.895 4.4130001 32
22.007999 -12.971 7.8250003 23
10.151 -5.8779998 3.6859999 41
9.8129997 -5.6919999 3.802 39
9.9659996 -5.7950001 4.0120001 21
9.8120003 -5.7220001 4.1599998 47
10.048 -5.881 4.402 31
9.875 -5.803 4.546 2
10.331 -5.967 3.707 42
9.7069998 -5.6160002 3.7709999 44
9.9809999 -5.7870002 4.0050001 25
9.71 -5.645 4.1259999 43
10.044 -5.8590002 4.3889999 33
9.9530001 -5.8280001 4.5549998 10
10.299 -5.9310002 3.6900001 30
9.5900002 -5.5310001 3.7379999 51
10.044 -5.8039999 4.007 31
9.7259998 -5.6339998 4.118 38
10.044 -5.836 4.3769999 35
10.03 -5.849 4.5630002 31
10.568 -6.0650001 3.7259998 36
9.6020002 -5.5170002 3.73 46
9.7869997 -5.6329999 3.941 9
9.7019997 -5.5960002 4.1009998 28
9.9359999 -5.7470002 4.3379998 37
